3.986500000000000044e-01 8.214449999999999807e-01 3.245319999999999871e-01
3.453729999999999856e-01 1.163899999999999935e-01 2.685529999999999862e-01
3.348070000000000213e-01 1.501309999999999867e-01 3.837039999999999895e-01
4.180519999999999792e-01 9.168730000000000491e-01 3.234449999999999825e-01
3.169660000000000255e-01 7.583649999999999558e-01 3.229139999999999788e-01
3.245169999999999999e-01 1.964869999999999950e-01 2.595569999999999822e-01
3.192119999999999957e-01 2.297609999999999930e-01 3.369570000000000065e-01
2.624429999999999819e-01 5.042219999999999480e-01 3.508149999999999880e-01
3.379559999999999786e-01 8.683680000000000287e-01 3.225239999999999774e-01
5.119100000000000039e-02 7.482550000000000034e-01 5.310479999999999645e-01
9.320299999999999419e-02 7.455819999999999670e-01 8.733399999999999497e-02
2.574850000000000194e-01 3.596960000000000157e-01 3.703069999999999973e-01
4.272580000000000267e-01 3.222799999999999970e-02 7.310200000000000031e-02
8.244600000000000539e-02 4.543920000000000181e-01 6.496000000000000385e-02
8.377500000000000224e-02 4.685420000000000140e-01 5.946930000000000271e-01
4.098399999999999821e-01 3.897899999999999976e-02 5.488690000000000513e-01
1.483690000000000009e-01 1.470289999999999930e-01 4.939509999999999734e-01
2.323209999999999997e-01 5.981499999999999595e-01 1.715420000000000000e-01
3.423599999999999977e-01 8.691400000000000514e-02 3.523819999999999730e-01
2.584400000000000031e-01 5.874369999999999870e-01 3.059640000000000137e-01
2.015010000000000134e-01 6.491470000000000296e-01 4.962489999999999957e-01
2.574480000000000102e-01 4.507180000000000075e-01 2.823879999999999724e-01
1.450009999999999910e-01 1.440909999999999969e-01 2.192759999999999987e-01
2.535999999999999921e-01 3.175180000000000224e-01 1.975190000000000001e-01
3.580130000000000257e-01 1.211750000000000049e-01 5.365499999999999714e-01
3.092790000000000261e-01 6.978429999999999911e-01 3.223840000000000039e-01
2.302980000000000027e-01 4.612990000000000146e-01 1.553319999999999979e-01
2.418829999999999869e-01 3.021429999999999949e-01 4.980410000000000115e-01
3.567799999999999860e-01 1.328050000000000064e-01 1.220129999999999965e-01
1.644390000000000018e-01 6.672930000000000250e-01 1.270229999999999970e-01
2.066649999999999876e-01 4.697680000000000189e-01 4.886159999999999948e-01
2.637329999999999952e-01 3.631539999999999768e-01 2.830420000000000158e-01
2.456909999999999927e-01 6.061020000000000296e-01 3.935679999999999734e-01
1.647589999999999888e-01 4.727709999999999968e-01 9.637800000000000533e-02
3.277579999999999938e-01 2.112439999999999873e-01 4.124059999999999948e-01
3.887479999999999825e-01 7.245470000000000521e-01 3.175950000000000162e-01
4.584810000000000274e-01 8.778259999999999952e-01 3.254850000000000243e-01
3.318599999999999883e-01 1.553809999999999913e-01 2.134070000000000134e-01
1.346630000000000049e-01 4.684420000000000250e-01 5.329669999999999686e-01
2.053399999999999948e-01 2.227609999999999868e-01 5.156279999999999752e-01
2.583909999999999818e-01 4.222609999999999975e-01 3.554459999999999842e-01
2.618389999999999884e-01 5.224360000000000115e-01 2.790719999999999867e-01
1.268620000000000025e-01 7.268120000000000136e-01 5.342949999999999644e-01
3.428539999999999921e-01 1.123630000000000045e-01 4.346189999999999776e-01
2.065379999999999994e-01 2.240570000000000062e-01 1.980619999999999881e-01
2.573799999999999977e-01 3.743060000000000276e-01 4.525810000000000111e-01
2.634610000000000007e-01 5.866869999999999585e-01 2.342829999999999913e-01
2.502229999999999732e-01 4.648070000000000257e-01 4.340519999999999934e-01
3.178199999999999775e-02 4.799729999999999830e-01 3.744000000000000106e-02
3.111829999999999874e-01 8.129929999999999657e-01 3.231550000000000256e-01
